"x y z"
7.550401962 -14.12608627 4.535165544
7.174879176 -13.65666402 4.533306823
7.611282051 -13.96283287 4.673148857
6.965854537 -13.6998595 4.697632701
7.921110212 -13.91542276 4.705290065
7.568005727 -13.91904655 4.842615994
-6.156176263 6.854029929 -0.594636735
-6.212637354 6.874350653 -0.598050472
-6.302003957 6.845513016 -0.600562451
-6.481469423 6.911696897 -0.611576673
-6.661858354 7.017266683 -0.624523159
-6.129979661 6.774475871 -0.502315755
-6.152079373 6.757114542 -0.502425547
-6.265858175 6.839811383 -0.510001476
-6.301024175 6.835973806 -0.511154348
-6.326719712 6.821735063 -0.51153862
-6.348981072 6.803752754 -0.511648411
-6.391695888 6.807535757 -0.513405139
-6.487291009 6.867009118 -0.519389028
-6.0795299 6.879139298 -0.415764239
-6.184695189 6.869666585 -0.418614414
-5.818070462 6.834336325 -0.651081631
-6.301726213 6.829227363 -0.42083123
-5.90817161 6.812144307 -0.654120335
-6.182023019 6.868295225 -0.670326838
-6.323467268 6.932039819 -0.337497344
-6.484104421 6.98537882 -0.691380808
-11.40129066 11.21799707 -0.446215821
-11.60196316 11.19347037 0.139845086
-11.73855592 11.26969632 -0.453968329
-11.89475364 12.21022673 -0.937216932
-11.79161247 11.16873242 0.140885992
-11.99328571 11.29014931 0.142881049
-12.10172759 11.26676906 -0.461274666
-11.3121217 11.31160394 0.289010795
-12.30913172 12.17882816 -0.952039356
-12.27674887 11.2760554 0.144598542
-12.40703971 11.26998408 -0.467604948
-11.77354539 11.48754159 0.29717535
-12.34535875 11.84548319 -0.940675492
-11.91791813 11.35500775 -0.300552455
-12.03978964 11.33100344 -0.301866827
-11.3535523 11.3493175 -0.144018385
-11.39824948 11.32429955 -0.144143972
-12.22359131 11.22433062 -0.30299866
-11.61006083 11.40438358 -0.737020161
-11.68354218 11.32625511 -0.145982999
-11.8525958 11.43018747 -0.745706406
-11.82431921 11.32282185 -0.146871123
-11.9524423 11.37542177 -0.148028362
-12.08245184 11.42871505 -0.149203543
-12.72908438 11.96156119 0.481805474
-11.36460831 11.35189534 0.010933736
-11.51715678 11.29442969 0.010980022
-12.4856148 11.24250506 -0.150728587
-11.80950758 11.30019596 0.011125688
-12.16031512 11.28368401 0.011291773
-12.5482913 11.29046763 0.011489851
-37.73798948 27.69878504 9.07138469
-37.62179527 27.61110079 9.501214614
-38.35212447 27.80527313 8.791683236
-34.35273817 32.33193921 2.132296254
-34.57685723 31.17007387 2.104165484
-34.60847467 30.97399254 3.798069322
-34.66088843 30.82991415 3.793423735
-34.58729616 30.57490531 3.775085294
-34.53475361 30.15299848 3.749085748
-34.37308928 32.0995451 2.571791796
-34.36162962 31.89205099 2.563601404
-34.64419695 29.50720729 3.721374594
-34.63450785 31.55695843 2.562181859
-34.67327473 29.13786646 5.370131257
-34.61193761 28.75439602 3.679726206
-34.65957985 28.40801851 5.313613656
-34.70268288 28.2658038 5.306902173
-34.6667107 31.36205935 3.000106479
-34.71006612 28.95633565 5.792166252
-34.41183813 30.78205516 1.273528159
-34.49229562 30.44296939 2.952457333
-34.72106891 28.42765945 5.750096339
-34.70141261 30.43007796 4.645007109
-35.02716612 27.79184598 5.729506511
-34.57831478 31.45526209 3.448322163
-34.53032066 31.02653966 3.424485789
-34.67007106 30.76972842 3.419556723
-34.61696772 30.53325765 3.405063734
-34.65318669 28.02431399 4.485290027
-34.60681469 29.20140609 5.008649866
-34.71299608 29.10914672 5.011068385
-34.65681256 27.99187144 4.927732032
-36.7212178 27.84218742 6.807398776
-16.97803581 15.12061729 0.197216106
-16.955778 14.99227114 0.408896091
-16.90756266 14.58388833 0.403386833
-17.00895241 15.69109924 0.638308168
-16.97123992 15.76102649 -0.833085348
-16.91150993 14.13001813 0.607867897
-16.91786644 14.04741624 0.606544435
-17.36595921 9.236098689 5.780043824
0 0 0
